ncols         183
nrows         31
xllcorner     282820.845771
yllcorner     3108904.95025
cellsize      60.0124378109453
512.618225097656 515.982849121094 520.337158203125 523.102722167969 527.221618652344 529.492309570313 533.400024414063 538.280212402344 538.605590820313 538.700378417969 539.010375976563 539.320373535156 539.661315917969 540.297424316406 541.294311523438 542.7138671875 543.46337890625 544.221313476563 544.010131835938 543.116760253906 542.046813964844 541.929870605469 534.062622070313 533.400024414063 525.780029296875 525.780029296875 533.400024414063 535.641174316406 538.018188476563 541.244140625 543.983337402344 546.786499023438 548.845947265625 542.460205078125 543.271911621094 543.772338867188 533.400024414063 512.6181640625 472.440002441406 457.200012207031 457.200012207031 457.200012207031 464.820007324219 483.704345703125 483.869995117188 485.774993896484 492.369232177734 508 533.400024414063 554.181823730469 575.733337402344 601.13330078125 638.90771484375 673.099975585938 695.325012207031 709.612487792969 723.900024414063 738.1875 732.971435546875 767.080017089844 782.320007324219 776.653869628906 800.100036621094 824.345458984375 844.826049804688 865.094116210938 880.533325195313 898.35791015625 923.36474609375 950.494750976563 972.670593261719 990.600036621094 990.600036621094 990.600036621094 973.666625976563 963.3857421875 985.157165527344 1013.46002197266 1041.40002441406 1058.33337402344 1067.93737792969 1066.80004882813 1068.16076660156 1095.375 1104.90002441406 1104.90002441406 1092.19995117188 1083.7333984375 1066.80004882813 1055.91430664063 1045.02856445313 1028.70007324219 1024.46667480469 1012.37139892578 1001.48571777344 977.899963378906 957.94287109375 947.05712890625 925.285766601563 907.472717285156 897.466674804688 880.533325195313 855.133361816406 853.440002441406 868.679992675781 879.230834960938 868.679992675781 861.059997558594 857.25 863.599975585938 857.25 845.820007324219 831.850036621094 812.800048828125 787.399963378906 783.771423339844 777.239990234375 762 746.760009765625 704.850036621094 685.799987792969 706.120056152344 734.785766601563 770.466674804688 821.266662597656 849.085754394531 838.200012207031 838.200012207031 838.200012207031 829.733337402344 821.266662597656 810.490905761719 819.150024414063 830.376770019531 838.200012207031 829.733337402344 819.150024414063 831.272705078125 847.164733886719 838.200012207031 826.476989746094 829.733337402344 826.476989746094 819.150024414063 827.314270019531 833.119995117188 838.200012207031 846.221008300781 850.900024414063 851.647094726563 856.342895507813 857.25 855.133361816406 851.647094726563 842.962524414063 827.314270019531 822.960021972656 828.260925292969 834.189453125 833.717651367188 826.77001953125 820.8818359375 810.768005371094 810.768005371094 809.625 803.563598632813 798.285705566406 792.47998046875 796.2900390625 790.073669433594 800.100036621094 792.47998046875 803.563598632813 800.100036621094 803.563598632813 792.47998046875 803.030822753906 793.750061035156 785.446166992188 773.723022460938 736.600036621094 748.145446777344 778.32861328125
523.567749023438 526.472717285156 529.045715332031 533.400024414063 533.400024414063 533.400024414063 536.739135742188 536.961730957031 536.933654785156 537.140258789063 537.346862792969 537.57421875 538.119262695313 539.038818359375 540.385437011719 541.048156738281 541.515991210938 541.116455078125 540.04833984375 538.804260253906 538.517883300781 520.700012207031 489.857147216797 491.066650390625 487.679992675781 482.600006103516 489.857147216797 508 534.520629882813 537.633361816406 540.608154296875 542.667541503906 539.505432128906 541.13427734375 541.861633300781 542.254455566406 533.400024414063 518.160034179688 476.25 457.200012207031 457.200012207031 457.200012207031 457.200012207031 487.679992675781 503.582611083984 506.730010986328 514.350036621094 527.538513183594 552.450012207031 575.309997558594 595.745422363281 621.030029296875 645.160034179688 673.099975585938 687.705017089844 699.135009765625 710.565002441406 711.200012207031 740.833374023438 751.609130859375 758.825012207031 767.44287109375 782.781860351563 817.033386230469 838.200012207031 855.133361816406 874.294799804688 900.952941894531 922.86669921875 950.2587890625 967.153869628906 993.986694335938 1004.14666748047 1014.30670166016 1024.46667480469 1034.62658691406 1005.84002685547 1032.93334960938 1059.18005371094 1078.34545898438 1092.19995117188 1106.05456542969 1119.90905761719 1133.763671875 1143 1143 1134.53332519531 1123.95007324219 1114.42504882813 1104.90002441406 1088.57141113281 1077.68579101563 1076.32507324219 1066.80004882813 1054.09997558594 1036.32006835938 1016 990.600036621094 968.82861328125 957.94287109375 936.17138671875 905.933349609375 907.472717285156 881.0625 899.160034179688 914.400024414063 906.780029296875 892.628601074219 887.185729980469 901.700012207031 891.5400390625 880.533325195313 858.981872558594 838.200012207031 816.428588867188 807.720031738281 800.100036621094 793.750061035156 779.584655761719 736.600036621094 703.1181640625 720.96923828125 736.600036621094 772.8857421875 828.674987792969 853.440002441406 870.857116699219 868.679992675781 868.679992675781 867.507690429688 853.440002441406 857.25 854.811584472656 862.95654296875 867.507690429688 867.507690429688 858.981872558594 860.611755371094 866.775024414063 857.25 865.414245605469 861.646179199219 861.646179199219 857.25 865.414245605469 863.599975585938 854.765258789063 861.059997558594 870.284240722656 876.299987792969 878.541198730469 880.109985351563 874.294799804688 868.679992675781 858.52001953125 858.981872558594 847.725036621094 849.923034667969 863.599975585938 853.440002441406 843.280029296875 832.10400390625 829.056030273438 828.674987792969 824.345458984375 820.05712890625 815.340026855469 809.171447753906 806.115783691406 814.136901855469 811.305847167969 828.674987792969 838.200012207031 841.663635253906 841.513061523438 838.200012207031 831.850036621094 820.615356445313 808.892333984375 784.859985351563 753.533325195313 768.349975585938 793.750061035156
533.400024414063 533.400024414063 533.400024414063 533.400024414063 533.400024414063 535.197998046875 535.31787109375 535.166809082031 535.270141601563 535.373474121094 535.487121582031 535.941162109375 536.783264160156 538.056945800781 538.632934570313 538.810668945313 538.222778320313 536.979858398438 535.561706542969 535.10595703125 518.160034179688 478.971435546875 457.200012207031 457.200012207031 457.200012207031 457.200012207031 457.200012207031 457.200012207031 495.300018310547 534.429748535156 536.489196777344 535.684326171875 538.242248535156 539.808410644531 540.451354980469 540.736511230469 533.400024414063 514.350036621094 476.25 457.200012207031 457.200012207031 457.200012207031 457.200012207031 484.414306640625 510.540008544922 516.834777832031 529.389526367188 548.053833007813 565.638488769531 583.223083496094 600.807678222656 614.679992675781 635 654.049987792969 668.215393066406 679.450012207031 689.428588867188 715.433349609375 730.827270507813 739.774963378906 746.760009765625 753.835754394531 791.63330078125 804.333374023438 829.733337402344 850.231567382813 874.058837890625 895.350036621094 910.936401367188 931.984680175781 967.153869628906 994.317077636719 1005.46832275391 1016.61956787109 1027.77075195313 1038.92199707031 1050.0732421875 1051.56005859375 1072.51501464844 1083.94506835938 1095.375 1106.80505371094 1118.23498535156 1121.22863769531 1139.37145996094 1143 1150.25720214844 1149.45764160156 1147.2333984375 1144.693359375 1143 1133.47497558594 1132.1142578125 1121.22863769531 1117.60009765625 1097.28002929688 1066.80004882813 1041.40002441406 1023.25714111328 1000.125 990.600036621094 990.600036621094 971.549987792969 909.637512207031 939.799987792969 956.733337402344 939.799987792969 905.933349609375 933.450012207031 952.5 933.450012207031 900.545471191406 870.857116699219 853.440002441406 838.200012207031 838.200012207031 831.850036621094 814.753845214844 792.47998046875 756.919982910156 723.900024414063 745.434753417969 756.138488769531 777.239990234375 838.200012207031 862.012512207031 876.299987792969 892.628601074219 899.160034179688 899.160034179688 895.350036621094 888.927429199219 883.199584960938 893.003051757813 907.050964355469 900.545471191406 895.350036621094 895.350036621094 885.825012207031 884.766723632813 883.023559570313 898.071411132813 895.350036621094 881.742858886719 889.000061035156 872.489990234375 868.679992675781 874.643493652344 883.919982910156 894.347351074219 901.700012207031 905.435302734375 899.160034179688 889.000061035156 878.839965820313 904.875 891.5400390625 885.092346191406 883.919982910156 873.760009765625 859.971435546875 852.487487792969 851.647094726563 847.725036621094 848.359985351563 838.200012207031 830.94287109375 830.179016113281 842.433349609375 838.200012207031 838.200012207031 841.82861328125 857.25 857.25 862.445434570313 861.391296386719 850.231567382813 842.962524414063 830.580017089844 816.428588867188 784.859985351563 800.100036621094 807.720031738281
533.400024414063 533.400024414063 527.049987792969 533.400024414063 533.656860351563 533.674011230469 533.400024414063 533.400024414063 533.400024414063 533.400024414063 533.763061523438 534.527770996094 535.728515625 536.2177734375 536.105346679688 535.3291015625 533.911437988281 523.875 511.628570556641 487.679992675781 457.200012207031 457.200012207031 457.200012207031 457.200012207031 457.200012207031 457.200012207031 457.200012207031 457.200012207031 457.200012207031 457.200012207031 533.400024414063 534.438354492188 536.979064941406 538.482543945313 539.041076660156 539.218627929688 533.400024414063 514.350036621094 482.600006103516 457.200012207031 457.200012207031 457.200012207031 461.433349609375 495.300018310547 517.071411132813 533.400024414063 546.099975585938 556.985717773438 548.640014648438 595.563171386719 563.478942871094 573.741149902344 615.950012207031 633.046142578125 641.350036621094 658.585754394531 690.033325195313 710.045471191406 720.724975585938 728.471984863281 737.507141113281 766.233337402344 787.399963378906 804.333374023438 822.960021972656 847.164733886719 872.489990234375 890.154541015625 904.460876464844 928.254577636719 969.818176269531 994.228576660156 1001.48571777344 1008.74291992188 1016 1023.25714111328 1033.78002929688 1057.65600585938 1058.00769042969 1060.9384765625 1061.35717773438 1066.80004882813 1088.57141113281 1107.83081054688 1121.22863769531 1137.13854980469 1143 1157.51428222656 1157.20678710938 1155.70007324219 1154.85339355469 1174.75 1181.09997558594 1176.86669921875 1171.57507324219 1153.8857421875 1143 1104.90002441406 1057.27502441406 1047.75 1055.91430664063 1045.02856445313 1028.70007324219 1016 1012.37139892578 1009.65002441406 999.066711425781 1002.32305908203 1005.84002685547 990.600036621094 952.5 903.514282226563 899.160034179688 879.763610839844 868.679992675781 862.012512207031 850.900024414063 838.200012207031 809.625 790.575012207031 744.681823730469 743.857116699219 771.525024414063 816.428588867188 849.923034667969 873.369201660156 890.587524414063 899.160034179688 914.400024414063 929.640014648438 923.924987792969 900.952941894531 905.435302734375 918.410583496094 928.254577636719 928.914306640625 922.02001953125 914.400024414063 906.378967285156 901.700012207031 909.637512207031 924.790893554688 924.339111328125 914.400024414063 893.6181640625 887.895629882813 895.350036621094 886.968017578125 894.521789550781 906.780029296875 917.447998046875 923.192321777344 920.496032714844 909.320007324219 922.86669921875 923.192321777344 920.496032714844 914.400024414063 904.240051269531 892.628601074219 881.0625 876.299987792969 868.679992675781 876.299987792969 878.839965820313 865.909118652344 857.25 854.528625488281 860.611755371094 866.775024414063 863.599975585938 865.094116210938 863.599975585938 879.475036621094 874.643493652344 874.294799804688 864.869995117188 871.537536621094 863.599975585938 850.900024414063 830.580017089844 845.127319335938 849.085754394531
518.160034179688 502.920013427734 488.949981689453 495.300018310547 501.650024414063 504.092315673828 504.092315673828 500.742858886719 498.230773925781 498.230773925781 510.540008544922 533.400024414063 533.802551269531 533.400024414063 527.538513183594 519.545471191406 498.763641357422 491.066650390625 466.725006103516 457.200012207031 457.200012207031 457.200012207031 457.200012207031 457.200012207031 457.200012207031 457.200012207031 457.200012207031 457.200012207031 457.200012207031 457.200012207031 457.200012207031 522.514282226563 535.7158203125 537.156677246094 537.630798339844 537.700744628906 533.400024414063 508 476.25 457.200012207031 457.200012207031 457.200012207031 476.25 508 535.983093261719 543.858825683594 550.506103515625 568.18701171875 583.531555175781 560.070007324219 566.615417480469 575.510559082031 587.188232421875 605.725402832031 627.184631347656 660.400024414063 689.263610839844 701.674987792969 710.184020996094 721.178588867188 744.681823730469 762 778.933349609375 792.47998046875 819.150024414063 849.630004882813 869.372741699219 884.582580566406 903.514282226563 937.84619140625 974.271423339844 985.837524414063 996.647644042969 1003.90478515625 1011.16186523438 1018.5400390625 1039.36804199219 1044.22229003906 1040.42309570313 1043.35388183594 1048.51196289063 1058.77905273438 1072.66149902344 1088.57141113281 1101.96923828125 1115.29089355469 1135.38000488281 1151.70861816406 1164.77136230469 1177.83422851563 1190.89709472656 1203.9599609375 1212.85009765625 1221.65808105469 1219.20007324219 1200.15002441406 1181.09997558594 1159.93334960938 1143 1123.95007324219 1117.60009765625 1097.28002929688 1066.80004882813 1066.80004882813 1066.80004882813 1049.86669921875 1031.630859375 1037.49230957031 1032.16357421875 1007.53338623047 965.200012207031 952.5 925.285766601563 899.160034179688 899.160034179688 889.000061035156 876.299987792969 870.857116699219 849.085754394531 805.542907714844 770.466674804688 754.742858886719 772.8857421875 828.674987792969 861.646179199219 885.092346191406 908.538513183594 920.75 928.254577636719 942.975036621094 952.5 922.86669921875 929.640014648438 943.144958496094 942.473693847656 944.880004882813 939.799987792969 934.720031738281 925.285766601563 919.842895507813 933.450012207031 931.718200683594 936.17138671875 923.36474609375 914.400024414063 908.304016113281 907.773986816406 918.410583496094 905.255981445313 914.400024414063 928.914306640625 935.736022949219 930.274963378906 930.965270996094 929.640014648438 938.783996582031 933.450012207031 928.254577636719 922.02001953125 909.637512207031 901.700012207031 891.5400390625 885.371459960938 904.875 907.472717285156 895.350036621094 880.533325195313 886.326354980469 887.185729980469 895.350036621094 889.000061035156 889.000061035156 891.98828125 885.371459960938 898.35791015625 887.72998046875 880.109985351563 901.700012207031 889.000061035156 872.83642578125 873.760009765625 867.507690429688 886.69091796875
487.679992675781 472.440002441406 457.200012207031 463.550018310547 477.519989013672 473.528564453125 468.923095703125 468.923095703125 468.923095703125 464.820007324219 482.600006103516 498.763641357422 504.825012207031 508 500.742858886719 492.369232177734 477.981842041016 457.200012207031 457.200012207031 457.200012207031 457.200012207031 457.200012207031 457.200012207031 457.200012207031 457.200012207031 457.200012207031 457.200012207031 457.200012207031 457.200012207031 457.200012207031 457.200012207031 495.300018310547 534.452697753906 535.830749511719 536.220581054688 536.182861328125 533.400024414063 502.920013427734 469.899993896484 457.200012207031 457.200012207031 457.200012207031 487.679992675781 533.400024414063 540.327270507813 550.506103515625 558.247802734375 571.5 583.163269042969 564.242858886719 571.5 578.338500976563 587.542114257813 600.635314941406 622.299987792969 654.049987792969 680.719970703125 691.89599609375 704.850036621094 723.900024414063 737.936889648438 753.035278320313 762 785.446166992188 820.615356445313 848.590881347656 864.704345703125 881.742858886719 906.378967285156 941.6142578125 960.119995117188 976.3125 985.837524414063 994.171875 1003.30004882813 1021.08001708984 1027.28894042969 1028.70007324219 1022.83850097656 1030.22399902344 1034.7158203125 1044.38830566406 1057.27502441406 1066.80004882813 1073.72729492188 1089.66003417969 1115.29089355469 1136.65002441406 1152.52502441406 1166.8125 1181.09997558594 1195.38757324219 1207.47692871094 1219.20007324219 1236.40649414063 1233.85388183594 1210.73327636719 1193.80004882813 1181.09997558594 1170.70910644531 1170.70910644531 1168.40002441406 1153.8857421875 1132.1142578125 1117.60009765625 1066.80004882813 1066.80004882813 1077.68579101563 1058.33337402344 1034.14282226563 1012.37139892578 990.600036621094 952.5 925.285766601563 933.450012207031 914.400024414063 931.333374023438 914.400024414063 866.775024414063 827.314270019531 812.800048828125 781.049987792969 774.700012207031 838.200012207031 866.775024414063 896.815368652344 922.02001953125 949.036437988281 958.849975585938 969.818176269531 973.666625976563 963.3857421875 962.025024414063 966.596984863281 969.029541015625 965.200012207031 965.200012207031 957.94287109375 952.5 949.960021972656 944.033325195313 948.690002441406 950.2587890625 941.294128417969 934.720031738281 930.728637695313 930.728637695313 933.450012207031 933.450012207031 930.728637695313 941.294128417969 950.685729980469 957.072021484375 950.843505859375 957.072021484375 952.5 949.036437988281 944.880004882813 936.811767578125 928.6875 918.88232421875 907.142883300781 914.400024414063 931.718200683594 925.830017089844 918.410583496094 905.933349609375 893.6181640625 910.389465332031 918.210021972656 914.400024414063 906.780029296875 914.400024414063 919.480041503906 910.590026855469 902.970031738281 914.400024414063 923.924987792969 914.400024414063 904.240051269531 891.5400390625 894.521789550781 902.676940917969
457.200012207031 457.200012207031 457.200012207031 457.200012207031 457.200012207031 457.200012207031 457.200012207031 457.200012207031 457.200012207031 457.200012207031 457.200012207031 476.25 481.26318359375 484.094146728516 477.519989013672 468.085693359375 457.200012207031 457.200012207031 457.200012207031 457.200012207031 457.200012207031 457.200012207031 457.200012207031 457.200012207031 460.947540283203 463.445922851563 461.282135009766 457.200012207031 457.200012207031 457.200012207031 457.200012207031 472.440002441406 523.875 534.5048828125 534.810241699219 534.664916992188 527.538513183594 501.650024414063 457.200012207031 457.200012207031 457.200012207031 463.0615234375 501.650024414063 533.400024414063 548.148376464844 554.181823730469 559.468444824219 573.832641601563 579.119995117188 584.200012207031 575.128601074219 582.929992675781 590.0615234375 599.573669433594 615.950012207031 650.239990234375 664.633361816406 688.521423339844 703.1181640625 713.873657226563 726.141235351563 736.600036621094 762 792.47998046875 821.871398925781 845.127319335938 859.971435546875 882.315795898438 909.917663574219 929.640014648438 947.737487792969 957.262512207031 966.787536621094 986.11767578125 1002.7919921875 1010.35552978516 1012.37139892578 1012.37139892578 1011.93603515625 1010.65264892578 1017.494140625 1028.70007324219 1036.32006835938 1044.38830566406 1054.09997558594 1073.72729492188 1098.55004882813 1117.60009765625 1136.65002441406 1143 1159.93334960938 1172.30773925781 1187.44995117188 1212.27270507813 1219.20007324219 1251.15490722656 1251.4384765625 1233.48754882813 1212.27270507813 1205.34545898438 1211.57995605469 1219.20007324219 1206.5 1203.9599609375 1173.47998046875 1153.8857421875 1143 1130.30004882813 1112.52001953125 1082.0400390625 1066.80004882813 1036.32006835938 990.600036621094 990.600036621094 990.600036621094 971.549987792969 965.200012207031 927.100036621094 892.628601074219 881.742858886719 866.775024414063 846.666687011719 829.40771484375 844.549987792969 870.857116699219 884.766723632813 931.333374023438 967.739990234375 990.600036621094 999.564758300781 1007.53338623047 995.362487792969 990.600036621094 990.600036621094 990.600036621094 994.542114257813 990.600036621094 985.157165527344 985.837524414063 980.440063476563 979.169982910156 977.152954101563 968.188293457031 965.200012207031 963.3857421875 962.025024414063 962.025024414063 963.3857421875 962.025024414063 966.536865234375 963.3857421875 968.188293457031 972.457092285156 970.721801757813 971.549987792969 969.818176269531 967.739990234375 963.705871582031 957.262512207031 944.880004882813 936.17138671875 930.728637695313 939.799987792969 948.690002441406 942.473693847656 932.329406738281 923.924987792969 914.400024414063 927.847106933594 933.450012207031 930.442138671875 938.212524414063 937.84619140625 947.05712890625 943.707702636719 922.86669921875 944.880004882813 944.880004882813 936.17138671875 914.400024414063 886.177795410156 891.822265625 914.400024414063
457.200012207031 457.200012207031 457.200012207031 457.200012207031 457.200012207031 457.200012207031 457.200012207031 457.200012207031 457.200012207031 457.200012207031 457.200012207031 457.200012207031 471.714294433594 464.820007324219 457.200012207031 457.200012207031 457.200012207031 457.200012207031 457.200012207031 457.200012207031 457.200012207031 457.200012207031 460.513031005859 465.306365966797 468.442626953125 470.940979003906 469.446441650391 460.375 457.200012207031 457.200012207031 457.200012207031 457.200012207031 500.742858886719 523.875 533.400024414063 525.780029296875 518.160034179688 497.840026855469 463.550018310547 457.200012207031 457.200012207031 463.550018310547 491.836364746094 523.239990234375 551.68798828125 562.896789550781 568.036376953125 569.976013183594 575.235290527344 580.292297363281 582.561279296875 586.014282226563 594.359985351563 601.784606933594 619.760009765625 647.700012207031 666.75 681.789489746094 689.810546875 699.2470703125 711.200012207031 733.424987792969 762 789.214294433594 810.490905761719 838.200012207031 858.252685546875 883.023559570313 900.952941894531 919.162536621094 928.6875 938.212524414063 959.223571777344 982.13330078125 993.422241210938 996.042907714844 996.042907714844 993.648010253906 987.552001953125 990.600036621094 1000.125 1005.84002685547 1017.494140625 1028.70007324219 1044.38830566406 1062.03747558594 1079.5 1098.55004882813 1110.34289550781 1125.07055664063 1138.76672363281 1149.34997558594 1170.70910644531 1197.42858886719 1210.73327636719 1219.20007324219 1265.90319824219 1269.02307128906 1262.0625 1253.06677246094 1253.06677246094 1257.30004882813 1257.30004882813 1244.59997558594 1219.20007324219 1208.31433105469 1206.5 1186.54284667969 1168.40002441406 1143 1110.34289550781 1077.68579101563 1047.75 1055.91430664063 1038.22497558594 1038.22497558594 1016 975.359985351563 952.5 927.100036621094 914.400024414063 889.000061035156 859.971435546875 853.440002441406 882.649963378906 903.514282226563 910.166687011719 977.899963378906 1011.3818359375 1021.08001708984 1023.9375 1023.25714111328 1019.70843505859 1017.494140625 1017.494140625 1019.17498779297 1014.41253662109 1011.76666259766 1007.53338623047 1002.63159179688 1001.48571777344 997.527282714844 994.228576660156 994.610534667969 994.410034179688 990.600036621094 990.600036621094 990.600036621094 990.600036621094 986.11767578125 990.600036621094 993.775024414063 993.9130859375 990.600036621094 990.600036621094 990.600036621094 990.600036621094 985.837524414063 975.359985351563 968.82861328125 971.549987792969 963.3857421875 965.200012207031 966.536865234375 959.223571777344 952.5 944.880004882813 942.975036621094 947.05712890625 954.7412109375 958.515808105469 952.5 966.787536621094 973.015380859375 978.876953125 973.666625976563 957.94287109375 968.82861328125 952.5 929.640014648438 903.111083984375 908.755554199219 922.86669921875
457.200012207031 457.200012207031 457.200012207031 457.200012207031 457.200012207031 457.200012207031 457.200012207031 457.200012207031 457.200012207031 457.200012207031 457.200012207031 457.200012207031 457.200012207031 457.200012207031 457.200012207031 457.200012207031 457.200012207031 457.200012207031 457.200012207031 457.200012207031 457.200012207031 457.200012207031 466.927673339844 470.452178955078 475.034057617188 478.436065673828 477.610717773438 469.899993896484 457.200012207031 457.200012207031 457.200012207031 457.200012207031 466.725006103516 482.600006103516 482.600006103516 488.949981689453 500.742858886719 487.679992675781 467.360015869141 457.200012207031 457.200012207031 457.200012207031 497.840026855469 509.587493896484 538.47998046875 569.976013183594 577.645141601563 581.890930175781 571.5 574.127624511719 582.010375976563 589.893127441406 596.900024414063 605.789978027344 624.840026855469 643.890014648438 657.726318359375 665.747375488281 672.352966308594 685.799987792969 704.850036621094 726.830810546875 755.07275390625 768.927307128906 800.100036621094 832.338500976563 856.12939453125 874.058837890625 891.98828125 900.952941894531 909.637512207031 932.329406738281 956.733337402344 970.54736328125 976.085693359375 973.666625976563 975.359985351563 970.54736328125 970.721801757813 974.557922363281 978.568420410156 990.600036621094 1003.30004882813 1017.494140625 1033.46252441406 1048.87060546875 1062.56665039063 1077.68579101563 1098.17651367188 1113.36669921875 1122.94738769531 1134.97900390625 1164.77136230469 1185.33337402344 1200.15002441406 1199.44445800781 1216.37780761719 1239.25268554688 1268.505859375 1288.47277832031 1301.75012207031 1301.26159667969 1295.40002441406 1276.34997558594 1266.82507324219 1261.53332519531 1247.77502441406 1238.25 1219.20007324219 1200.15002441406 1143 1123.95007324219 1110.34289550781 1099.45715332031 1066.80004882813 1076.32507324219 1076.32507324219 1023.25714111328 1005.84002685547 971.549987792969 952.5 925.285766601563 874.294799804688 884.582580566406 883.919982910156 927.100036621094 965.200012207031 1004.45458984375 1038.22497558594 1052.94543457031 1055.91430664063 1051.10278320313 1046.24780273438 1044.24487304688 1047.75 1042.98754882813 1037.16674804688 1032.93334960938 1026.69482421875 1023.25714111328 1023.25714111328 1016 1018.67370605469 1017.27001953125 1016 1012.37139892578 1013.46002197266 1012.37139892578 1008.74291992188 1008.74291992188 1008.74291992188 1014.66314697266 1011.3818359375 1014.66314697266 1013.46002197266 1011.3818359375 1010.65264892578 1002.63159179688 998.220031738281 998.621032714844 994.610534667969 994.410034179688 990.600036621094 986.11767578125 981.075012207031 975.359985351563 975.359985351563 971.549987792969 978.568420410156 979.714294433594 981.63525390625 977.899963378906 977.899963378906 997.22607421875 1005.84002685547 1005.11431884766 996.950012207031 990.600036621094 975.359985351563 948.266662597656 935.181823730469 933.450012207031 944.880004882813
457.200012207031 457.200012207031 457.200012207031 457.200012207031 457.200012207031 457.200012207031 457.200012207031 457.200012207031 457.200012207031 457.200012207031 457.200012207031 457.200012207031 457.200012207031 457.200012207031 457.200012207031 457.200012207031 457.200012207031 457.200012207031 457.200012207031 457.200012207031 457.200012207031 457.200012207031 465.015380859375 476.655334472656 480.391296386719 484.76171875 469.446441650391 479.424987792969 457.200012207031 457.200012207031 457.200012207031 457.200012207031 457.200012207031 457.200012207031 457.200012207031 457.200012207031 468.085693359375 468.085693359375 457.200012207031 457.200012207031 457.200012207031 463.0615234375 495.300018310547 523.239990234375 540.327270507813 568.960021972656 588.263977050781 592.3935546875 595.745422363281 576.755187988281 584.637939453125 592.520690917969 600.403442382813 607.785705566406 621.030029296875 633.663146972656 641.684204101563 645.458801269531 647.700012207031 671.945434570313 691.661560058594 713.509155273438 732.692321777344 762 797.169189453125 824.345458984375 847.164733886719 865.094116210938 874.058837890625 881.0625 903.514282226563 931.333374023438 946.484252929688 954.314331054688 954.156555175781 954.314331054688 948.266662597656 946.484252929688 950.494750976563 954.505249023438 968.82861328125 978.568420410156 990.600036621094 1004.88751220703 1021.97650146484 1037.16674804688 1050.75793457031 1071.28234863281 1087.96667480469 1098.88427734375 1110.91577148438 1137.55712890625 1159.93334960938 1181.09997558594 1184.787109375 1199.53552246094 1214.28381347656 1261.53332519531 1295.40002441406 1295.40002441406 1324.70764160156 1339.85009765625 1341.11999511719 1323.97497558594 1314.45007324219 1303.86669921875 1295.40002441406 1284.51428222656 1273.62854003906 1262.74279785156 1234.44006347656 1193.80004882813 1173.47998046875 1158.23999023438 1143 1117.60009765625 1097.28002929688 1092.19995117188 1066.80004882813 1041.40002441406 990.600036621094 944.880004882813 898.35791015625 905.607666015625 904.460876464844 914.400024414063 998.220031738281 1028.70007324219 1046.01818847656 1092.19995117188 1110.34289550781 1097.28002929688 1092.19995117188 1092.19995117188 1085.84997558594 1062.56665039063 1058.33337402344 1050.75793457031 1045.02856445313 1043.60876464844 1037.771484375 1042.73693847656 1040.13000488281 1034.14282226563 1037.771484375 1036.32006835938 1034.14282226563 1030.51428222656 1032.16357421875 1030.51428222656 1032.16357421875 1030.51428222656 1038.72631835938 1038.72631835938 1036.32006835938 1034.7158203125 1026.69482421875 1021.08001708984 1022.68420410156 1018.67370605469 1017.27001953125 1016 1011.3818359375 1008.52941894531 1003.30004882813 999.066711425781 999.066711425781 999.066711425781 1004.88751220703 1007.53338623047 1008.52941894531 1004.04705810547 1006.92858886719 1014.41253662109 1028.70007324219 1026.8857421875 1019.17498779297 1009.65002441406 995.082336425781 976.745483398438 968.82861328125 959.223571777344 971.549987792969
457.200012207031 457.200012207031 457.200012207031 457.200012207031 457.200012207031 457.200012207031 457.200012207031 457.200012207031 457.200012207031 457.200012207031 457.200012207031 457.200012207031 457.200012207031 457.200012207031 457.200012207031 457.200012207031 457.200012207031 457.200012207031 457.200012207031 457.200012207031 457.200012207031 461.962493896484 470.647064208984 476.738464355469 486.382965087891 490.330444335938 494.489379882813 465.859100341797 457.200012207031 457.200012207031 457.200012207031 457.200012207031 457.200012207031 457.200012207031 457.200012207031 457.200012207031 457.200012207031 457.200012207031 457.200012207031 457.200012207031 457.200012207031 464.820007324219 510.540008544922 537.882385253906 561.109069824219 581.890930175781 599.440002441406 606.552001953125 607.141906738281 609.600036621094 580.390014648438 584.637939453125 585.019348144531 586.153869628906 609.600036621094 617.621032714844 618.564697265625 609.600036621094 630.3818359375 654.049987792969 673.099975585938 697.523071289063 727.363586425781 762 782.781860351563 810.490905761719 838.200012207031 847.164733886719 852.487487792969 870.857116699219 900.545471191406 922.421020507813 932.542907714844 937.59130859375 934.278259277344 932.542907714844 929.640014648438 922.86669921875 930.442138671875 947.05712890625 954.505249023438 965.200012207031 978.568420410156 995.082336425781 1011.76666259766 1026.69482421875 1045.63342285156 1062.78942871094 1074.82104492188 1086.85266113281 1104.90002441406 1133.47497558594 1163.05261230469 1177.2900390625 1181.09997558594 1196.33996582031 1211.57995605469 1270 1304.92504882813 1323.97497558594 1343.02502441406 1359.876953125 1371.59997558594 1371.59997558594 1354.66662597656 1346.19995117188 1346.19995117188 1338.94274902344 1341.11999511719 1333.5 1295.40002441406 1257.30004882813 1244.59997558594 1219.20007324219 1185.33337402344 1168.40002441406 1175.65710449219 1158.23999023438 1143 1104.90002441406 1066.80004882813 1005.84002685547 944.880004882813 952.5 911.860046386719 1001.48571777344 1024.46667480469 1043.94006347656 1085.84997558594 1143 1156.85461425781 1163.78186035156 1168.40002441406 1168.94189453125 1159.93334960938 1143 1104.90002441406 1066.80004882813 1053.5478515625 1059.54284667969 1066.80004882813 1062.98999023438 1055.91430664063 1055.91430664063 1059.18005371094 1055.91430664063 1052.28564453125 1052.94543457031 1052.94543457031 1052.28564453125 1052.94543457031 1052.94543457031 1052.28564453125 1062.78942871094 1058.77905273438 1050.75793457031 1043.94006347656 1046.74731445313 1042.73693847656 1040.13000488281 1034.14282226563 1037.771484375 1035.42358398438 1028.70007324219 1024.46667480469 1024.89001464844 1024.46667480469 1022.68420410156 1024.46667480469 1033.46252441406 1035.42358398438 1030.94116210938 1032.93334960938 1039.58569335938 1042.98754882813 1047.75 1038.22497558594 1021.97650146484 1009.65002441406 1000.125 985.519958496094 986.11767578125 996.950012207031
457.200012207031 457.200012207031 457.200012207031 457.200012207031 457.200012207031 457.200012207031 457.200012207031 457.200012207031 457.200012207031 457.200012207031 457.200012207031 457.200012207031 457.200012207031 457.200012207031 457.200012207031 457.200012207031 457.200012207031 457.200012207031 457.200012207031 457.200012207031 464.57421875 469.490356445313 476.25 484.094146728516 488.461547851563 496.110626220703 476.25 469.899993896484 470.337921142578 457.200012207031 457.200012207031 457.200012207031 457.200012207031 457.200012207031 457.200012207031 457.200012207031 457.200012207031 457.200012207031 457.200012207031 457.200012207031 457.200012207031 463.0615234375 505.69091796875 533.400024414063 566.05712890625 602.672729492188 623.45458984375 637.309143066406 641.350036621094 632.460021972656 609.600036621094 588.010009765625 592.520690917969 592.3935546875 593.187683105469 609.600036621094 609.600036621094 609.600036621094 615.950012207031 635 655.320007324219 685.799987792969 716.280029296875 741.218200683594 768.927307128906 787.399963378906 810.490905761719 821.871398925781 838.200012207031 858.981872558594 883.919982910156 905.933349609375 917.713073730469 917.575012207031 914.400024414063 910.166687011719 904.009155273438 907.472717285156 925.285766601563 930.442138671875 939.799987792969 954.505249023438 969.433349609375 986.11767578125 1002.63159179688 1020.23333740234 1038.72631835938 1052.94543457031 1063.86926269531 1077.68579101563 1110.34289550781 1143 1159.32861328125 1187.11584472656 1200.15002441406 1206.06201171875 1219.20007324219 1298.02758789063 1313.79309082031 1329.55859375 1345.32409667969 1360.17004394531 1371.59997558594 1371.59997558594 1371.59997558594 1371.59997558594 1371.59997558594 1371.59997558594 1371.59997558594 1371.59997558594 1371.59997558594 1333.5 1284.51428222656 1249.68005371094 1219.20007324219 1228.72497558594 1236.13342285156 1219.20007324219 1193.80004882813 1158.23999023438 1092.19995117188 1041.40002441406 1016 1012.37139892578 1016 1034.14282226563 1066.80004882813 1066.80004882813 1149.92724609375 1165.85998535156 1188.71997070313 1198.41821289063 1205.17919921875 1197.76245117188 1193.80004882813 1203.9599609375 1188.71997070313 1162.05004882813 1158.23999023438 1164.77136230469 1164.77136230469 1175.65710449219 1164.77136230469 1162.05004882813 1153.8857421875 1143 1092.19995117188 1085.84997558594 1066.80004882813 1097.28002929688 1097.28002929688 1092.19995117188 1092.19995117188 1104.90002441406 1104.90002441406 1066.80004882813 1082.0400390625 1066.80004882813 1062.98999023438 1055.91430664063 1049.48181152344 1062.31762695313 1054.09997558594 1049.86669921875 1043.94006347656 1046.74731445313 1049.86669921875 1046.74731445313 1041.40002441406 1049.86669921875 1062.03747558594 1057.83532714844 1051.56005859375 1058.33337402344 1076.32507324219 1066.80004882813 1048.87060546875 1038.22497558594 1028.70007324219 1014.41253662109 1006.64215087891 1009.65002441406 1019.90771484375
457.200012207031 457.200012207031 457.200012207031 457.200012207031 457.200012207031 457.200012207031 457.200012207031 457.200012207031 457.200012207031 457.200012207031 457.200012207031 457.200012207031 457.200012207031 457.200012207031 457.200012207031 457.200012207031 457.200012207031 457.200012207031 457.200012207031 460.248016357422 470.80712890625 479.322601318359 484.238739013672 490.537506103516 497.541168212891 500.184631347656 482.600006103516 474.406463623047 466.343994140625 471.054565429688 474.133331298828 480.059997558594 477.981811523438 472.440002441406 465.666687011719 480.059997558594 474.133331298828 457.200012207031 457.200012207031 457.200012207031 457.200012207031 464.127288818359 490.537506103516 519.112487792969 556.260009765625 601.97998046875 638.90771484375 665.018188476563 678.179992675781 660.400024414063 632.460021972656 609.600036621094 595.630004882813 600.403442382813 599.767761230469 600.221557617188 609.600036621094 609.600036621094 609.600036621094 609.600036621094 628.650024414063 666.75 699.654541015625 719.666687011719 739.140014648438 768.927307128906 789.214294433594 807.720031738281 819.150024414063 838.200012207031 855.133361816406 872.066650390625 882.649963378906 885.825012207031 884.766723632813 883.227294921875 886.69091796875 902.368469238281 906.780029296875 914.400024414063 930.442138671875 944.033325195313 959.223571777344 976.3125 995.082336425781 1014.66314697266 1032.16357421875 1046.28466796875 1058.6357421875 1076.32507324219 1129.1455078125 1153.16003417969 1173.47998046875 1191.98571777344 1211.17895507813 1230.08569335938 1276.34997558594 1304.26049804688 1314.89306640625 1325.52563476563 1337.31005859375 1349.18823242188 1362.07507324219 1367.11755371094 1371.59997558594 1371.59997558594 1371.59997558594 1371.59997558594 1371.59997558594 1371.59997558594 1371.59997558594 1371.59997558594 1371.59997558594 1310.64001464844 1284.51428222656 1284.51428222656 1276.34997558594 1257.30004882813 1236.13342285156 1193.80004882813 1117.60009765625 1058.33337402344 1066.80004882813 1079.5 1051.56005859375 1066.80004882813 1123.95007324219 1153.39086914063 1176.86669921875 1191.49084472656 1211.57995605469 1219.20007324219 1219.20007324219 1244.59997558594 1276.34997558594 1295.40002441406 1276.34997558594 1244.59997558594 1219.20007324219 1234.44006347656 1219.20007324219 1231.90002441406 1209.67504882813 1219.20007324219 1200.15002441406 1186.54284667969 1168.40002441406 1162.05004882813 1159.93334960938 1162.05004882813 1159.32861328125 1164.77136230469 1163.32006835938 1163.32006835938 1166.44616699219 1160.58459472656 1155.70007324219 1143 1123.95007324219 1104.90002441406 1117.60009765625 1123.95007324219 1104.90002441406 1085.84997558594 1066.80004882813 1082.0400390625 1092.19995117188 1079.5 1057.27502441406 1063.17138671875 1082.0400390625 1089.66003417969 1082.0400390625 1087.58190917969 1099.45715332031 1080.65454101563 1066.80004882813 1057.27502441406 1042.98754882813 1030.70520019531 1032.51000976563 1030.51428222656 1038.22497558594
457.200012207031 457.200012207031 457.200012207031 457.200012207031 457.200012207031 457.200012207031 457.200012207031 457.200012207031 457.200012207031 457.200012207031 457.200012207031 457.200012207031 457.200012207031 457.200012207031 457.200012207031 457.200012207031 457.200012207031 457.200012207031 461.010009765625 471.714294433594 478.536010742188 487.135711669922 494.070983886719 498.987121582031 504.825012207031 510.988250732422 489.154846191406 484.632019042969 489.284210205078 491.066650390625 512.6181640625 524.933349609375 508 505.69091796875 510.540008544922 524.933349609375 514.350036621094 478.971435546875 478.971435546875 498.763641357422 495.300018310547 486.507690429688 498.230773925781 519.112487792969 556.260009765625 579.119995117188 609.600036621094 653.142883300781 695.826354980469 678.179992675781 655.320007324219 619.125 609.600036621094 603.25 608.286254882813 607.141906738281 607.255432128906 609.600036621094 609.600036621094 609.600036621094 609.600036621094 651.933349609375 671.945434570313 693.419982910156 714.375 752.475036621094 777.239990234375 781.049987792969 796.636413574219 816.428588867188 825.5 844.549987792969 862.012512207031 867.833312988281 870.857116699219 865.909118652344 878.305236816406 883.919982910156 894.521789550781 908.050048828125 918.633361816406 932.329406738281 947.737487792969 975.359985351563 990.600036621094 1021.97650146484 1030.35656738281 1050.23474121094 1072.24291992188 1097.28002929688 1133.47497558594 1157.51428222656 1183.64001464844 1203.9599609375 1225.0615234375 1260.23071289063 1295.40002441406 1303.42114257813 1311.44201660156 1314.45007324219 1322.29418945313 1333.5 1340.22351074219 1347.78747558594 1353.67053222656 1362.63537597656 1371.59997558594 1371.59997558594 1371.59997558594 1371.59997558594 1371.59997558594 1371.59997558594 1371.59997558594 1311.96520996094 1349.82849121094 1333.5 1307.123046875 1286.93334960938 1257.30004882813 1228.72497558594 1127.76000976563 1117.60009765625 1143 1150.61999511719 1150.61999511719 1151.46667480469 1193.80004882813 1200.15002441406 1160.78002929688 1219.20007324219 1219.20007324219 1219.20007324219 1219.20007324219 1240.97143554688 1295.40002441406 1295.40002441406 1295.40002441406 1295.40002441406 1295.40002441406 1295.40002441406 1295.40002441406 1295.40002441406 1295.40002441406 1295.40002441406 1276.34997558594 1219.20007324219 1219.20007324219 1210.73327636719 1193.80004882813 1189.89233398438 1191.98571777344 1191.98571777344 1191.98571777344 1191.98571777344 1189.89233398438 1184.03076171875 1193.80004882813 1181.09997558594 1185.33337402344 1190.625 1185.33337402344 1170.70910644531 1160.58459472656 1163.78186035156 1158.23999023438 1156.85461425781 1158.23999023438 1143 1066.80004882813 1117.60009765625 1130.30004882813 1127.76000976563 1127.76000976563 1129.1455078125 1122.21813964844 1108.36364746094 1092.19995117188 1074.42004394531 1054.76843261719 1052.68884277344 1055.36999511719 1052.28564453125 1050.92504882813
457.200012207031 457.200012207031 457.200012207031 457.200012207031 457.200012207031 457.200012207031 457.200012207031 457.200012207031 457.200012207031 457.200012207031 457.200012207031 457.200012207031 457.200012207031 462.279998779297 466.725006103516 466.725006103516 462.279998779297 457.200012207031 469.899993896484 483.869995117188 493.485717773438 496.824005126953 503.464294433594 508.819366455078 513.735473632813 503.903228759766 502.920013427734 513.347412109375 513.347412109375 516.466674804688 533.400024414063 552.450012207031 552.450012207031 548.640014648438 552.450012207031 558.800048828125 541.02001953125 527.538513183594 533.400024414063 539.261535644531 526.472717285156 522.514282226563 521.676940917969 533.400024414063 550.984619140625 569.258850097656 601.97998046875 660.400024414063 707.85791015625 698.09033203125 676.275024414063 631.371398925781 609.600036621094 609.600036621094 615.461547851563 625.64208984375 628.650024414063 623.887512207031 615.461547851563 609.600036621094 609.600036621094 630.3818359375 647.700012207031 662.940002441406 695.325012207031 729.342895507813 745.066650390625 755.07275390625 783.771423339844 787.399963378906 803.563598632813 825.5 833.119995117188 842.433349609375 849.085754394531 854.242126464844 861.059997558594 874.643493652344 889.000061035156 900.288879394531 908.957153320313 919.162536621094 942.473693847656 966.536865234375 990.600036621094 1021.08001708984 1048.87060546875 1066.80004882813 1092.19995117188 1099.45715332031 1143 1165.85998535156 1188.71997070313 1214.11999511719 1239.25268554688 1264.92004394531 1284.51428222656 1285.23999023438 1290.32006835938 1295.40002441406 1304.92504882813 1313.32946777344 1319.21252441406 1326.77661132813 1335.7412109375 1351.28002929688 1366.1572265625 1362.63537597656 1371.59997558594 1371.59997558594 1371.59997558594 1371.59997558594 1365.25 1348.15393066406 1371.59997558594 1363.97998046875 1318.26000976563 1282.70007324219 1257.30004882813 1231.90002441406 1181.09997558594 1163.78186035156 1173.47998046875 1188.71997070313 1196.33996582031 1202.2666015625 1148.9833984375 1153.34838867188 1162.41101074219 1176.02001953125 1217.97094726563 1219.20007324219 1219.20007324219 1240.97143554688 1280.16003417969 1285.875 1280.8857421875 1278.83483886719 1283.2080078125 1291.16674804688 1295.40002441406 1295.40002441406 1295.40002441406 1295.40002441406 1276.34997558594 1276.34997558594 1260.021484375 1243.69287109375 1227.3642578125 1219.20007324219 1219.20007324219 1219.20007324219 1219.20007324219 1219.20007324219 1219.20007324219 1219.20007324219 1219.20007324219 1219.20007324219 1222.248046875 1229.13916015625 1212.27270507813 1195.75390625 1200.15002441406 1203.9599609375 1198.41821289063 1189.89233398438 1203.9599609375 1185.33337402344 1177.63635253906 1197.42858886719 1166.44616699219 1168.40002441406 1164.77136230469 1158.23999023438 1147.76257324219 1130.30004882813 1120.14001464844 1099.45715332031 1064.49096679688 1092.19995117188 1123.95007324219 1143 1143
457.200012207031 457.200012207031 457.200012207031 457.200012207031 460.375 464.127288818359 461.210510253906 457.200012207031 466.164703369141 474.133331298828 471.487518310547 463.0615234375 474.784606933594 487.679992675781 492.759979248047 495.300018310547 486.507690429688 480.646179199219 481.012512207031 495.300018310547 506.730010986328 515.257141113281 515.111999511719 519.792846679688 518.651611328125 521.2080078125 533.400024414063 542.364685058594 533.400024414063 541.86669921875 563.880004882813 579.119995117188 590.549987792969 594.359985351563 588.818176269531 586.739990234375 575.733337402344 571.5 563.880004882813 574.963623046875 575.733337402344 561.975036621094 552.450012207031 561.109069824219 571.5 586.153869628906 596.152954101563 647.700012207031 719.889465332031 712.838745117188 692.149963378906 647.700012207031 609.600036621094 609.600036621094 630.3818359375 650.630798339844 657.225036621094 650.630798339844 637.309143066406 617.220031738281 609.600036621094 609.600036621094 617.220031738281 638.174987792969 666.75 694.266662597656 713.509155273438 742.950012207031 748.145446777344 762 787.399963378906 802.640014648438 810.985717773438 817.880004882813 828.674987792969 838.200012207031 854.765258789063 869.950012207031 883.355590820313 892.628601074219 900.792907714844 922.421020507813 950.685729980469 972.457092285156 995.082336425781 1021.97650146484 1051.56005859375 1074.05712890625 1093.46997070313 1114.42504882813 1132.1142578125 1163.05261230469 1176.33752441406 1212.85009765625 1234.44006347656 1251.85717773438 1254.76000976563 1268.72998046875 1259.84008789063 1262.74279785156 1278.46667480469 1289.04992675781 1299.88244628906 1308.84704589844 1320.80004882813 1333.5 1335.7412109375 1346.19995117188 1363.13330078125 1371.59997558594 1371.59997558594 1357.74548339844 1336.43078613281 1327.15002441406 1333.5 1308.09997558594 1281.54541015625 1276.34997558594 1266.37133789063 1230.48889160156 1205.34545898438 1201.61535644531 1205.34545898438 1219.20007324219 1219.20007324219 1210.23522949219 1149.32458496094 1206.3046875 1161.10961914063 1208.31433105469 1191.26000976563 1219.20007324219 1219.20007324219 1234.44006347656 1257.30004882813 1272.20874023438 1259.1142578125 1258.95642089844 1265.76672363281 1272.98828125 1285.875 1290.32006835938 1295.40002441406 1289.95727539063 1280.16003417969 1264.0234375 1262.33203125 1253.70568847656 1245.07934570313 1236.45288085938 1227.82641601563 1219.20007324219 1219.20007324219 1212.85009765625 1216.15197753906 1219.20007324219 1219.20007324219 1219.20007324219 1219.20007324219 1231.39196777344 1249.01745605469 1236.13342285156 1257.30004882813 1276.34997558594 1244.59997558594 1257.30004882813 1257.30004882813 1219.20007324219 1262.74279785156 1201.61535644531 1206.5 1197.42858886719 1188.71997070313 1176.33752441406 1162.05004882813 1157.28747558594 1151.96472167969 1153.16003417969 1158.23999023438 1159.32861328125 1164.77136230469 1170.21423339844 1178.16918945313
457.200012207031 457.200012207031 457.200012207031 463.550018310547 472.440002441406 479.424987792969 484.909088134766 485.273681640625 481.012512207031 493.058837890625 491.066650390625 500.0625 498.230773925781 509.953857421875 518.160034179688 521.676940917969 523.239990234375 515.8154296875 509.336853027344 509.587493896484 520.700012207031 529.590026855469 533.400024414063 533.400024414063 538.47998046875 544.285705566406 556.84619140625 566.05712890625 566.05712890625 571.5 592.666687011719 609.600036621094 626.533386230469 632.460021972656 632.460021972656 626.533386230469 609.600036621094 593.271423339844 593.271423339844 609.600036621094 618.066711425781 592.015380859375 590.549987792969 596.900024414063 602.672729492188 609.600036621094 631.371398925781 666.75 709.083374023438 727.587097167969 711.200012207031 673.099975585938 638.174987792969 624.840026855469 647.700012207031 671.945434570313 685.799987792969 678.872741699219 662.940002441406 635 614.362487792969 609.600036621094 609.600036621094 609.600036621094 636.494140625 663.388305664063 685.799987792969 706.581848144531 720.436401367188 745.066650390625 772.159973144531 778.32861328125 787.399963378906 800.100036621094 809.625 832.338500976563 850.900024414063 867.507690429688 885.092346191406 902.676940917969 920.75 930.965270996094 946.484252929688 968.188293457031 998.621032714844 1021.97650146484 1052.51257324219 1070.60998535156 1085.84997558594 1107.43994140625 1126.67138671875 1147.76257324219 1174.75 1200.15002441406 1219.20007324219 1224.28002929688 1245.86999511719 1246.9091796875 1229.35998535156 1227.66674804688 1250.94995117188 1260.763671875 1280.16003417969 1290.91760253906 1300.8427734375 1308.84704589844 1320.80004882813 1337.73327636719 1354.66662597656 1367.97143554688 1371.59997558594 1341.11999511719 1316.18176269531 1301.26159667969 1289.53845214844 1276.34997558594 1260.763671875 1239.98181152344 1247.77502441406 1244.59997558594 1245.86999511719 1238.25 1230.63000488281 1223.01000976563 1216.47863769531 1196.78833007813 1209.36682128906 1201.34069824219 1197.42858886719 1200.15002441406 1207.29382324219 1206.5 1219.20007324219 1228.72497558594 1244.59997558594 1252.33044433594 1237.34289550781 1240.36669921875 1246.09411621094 1257.30004882813 1266.82507324219 1270 1259.84008789063 1262.74279785156 1257.30004882813 1249.68005371094 1237.12939453125 1219.20007324219 1215.88696289063 1205.94787597656 1201.8818359375 1205.34545898438 1201.61535644531 1193.80004882813 1197.86401367188 1206.5 1219.20007324219 1229.78332519531 1242.4833984375 1255.18334960938 1267.88330078125 1268.89562988281 1286.93334960938 1295.40002441406 1322.6142578125 1323.10913085938 1325.88000488281 1320.80004882813 1306.28576660156 1295.40002441406 1270 1219.20007324219 1204.91247558594 1190.625 1185.86254882813 1178.85876464844 1176.86669921875 1183.34118652344 1183.64001464844 1188.71997070313 1191.98571777344 1197.42858886719 1202.87145996094
461.682373046875 465.666687011719 461.682373046875 468.630004882813 482.600006103516 490.727996826172 498.475006103516 505.69091796875 509.336853027344 509.587493896484 519.952941894531 519.952941894531 528.637512207031 533.400024414063 540.026123046875 542.924987792969 546.652160644531 544.830017089844 538.47998046875 533.400024414063 539.261535644531 552.450012207031 554.566650390625 557.463195800781 560.294128417969 568.960021972656 576.94287109375 592.015380859375 598.714294433594 596.152954101563 609.600036621094 647.700012207031 666.75 677.333312988281 677.333312988281 666.75 643.466674804688 642.257141113281 647.700012207031 660.400024414063 670.559997558594 647.700012207031 647.700012207031 647.700012207031 643.466674804688 651.933349609375 666.75 694.266662597656 713.014282226563 742.335510253906 715.107666015625 693.419982910156 669.471374511719 658.905883789063 670.559997558594 690.282348632813 698.93798828125 701.0400390625 685.799987792969 660.400024414063 635 609.600036621094 620.485717773438 627.742919921875 627.742919921875 652.182312011719 665.62939453125 679.076477050781 694.266662597656 718.457153320313 741.218200683594 752.060913085938 771.525024414063 781.049987792969 797.169189453125 826.476989746094 853.440002441406 871.72802734375 890.015991210938 900.112487792969 920.261535644531 928.254577636719 941.294128417969 965.200012207031 995.082336425781 1023.9375 1044.38830566406 1057.83532714844 1076.9599609375 1094.01428222656 1108.36364746094 1136.07275390625 1162.05004882813 1188.71997070313 1200.15002441406 1223.01000976563 1240.53601074219 1226.12731933594 1208.31433105469 1217.46813964844 1219.20007324219 1249.68005371094 1264.0234375 1274.2333984375 1281.95300292969 1295.40002441406 1312.33337402344 1329.26672363281 1346.19995117188 1361.43994140625 1321.67590332031 1325.88000488281 1295.40002441406 1279.07153320313 1268.18579101563 1254.36926269531 1238.25 1219.20007324219 1211.57995605469 1219.20007324219 1222.82861328125 1219.20007324219 1215.189453125 1208.31433105469 1200.15002441406 1183.34118652344 1202.96472167969 1186.54284667969 1185.86254882813 1193.00622558594 1200.15002441406 1209.0400390625 1219.20007324219 1225.55004882813 1230.48889160156 1232.4521484375 1217.46813964844 1219.20007324219 1228.72497558594 1238.25 1244.59997558594 1243.26318359375 1234.44006347656 1229.35998535156 1230.08569335938 1224.64282226563 1219.20007324219 1211.94287109375 1202.634765625 1196.00866699219 1186.06958007813 1181.09997558594 1184.56359863281 1174.75 1179.57604980469 1192.30590820313 1200.15002441406 1201.27062988281 1209.0400390625 1229.13916015625 1249.01745605469 1257.30004882813 1288.47277832031 1307.59204101563 1325.88000488281 1355.271484375 1357.74548339844 1371.59997558594 1360.71423339844 1349.82849121094 1328.05725097656 1306.28576660156 1219.20007324219 1214.4375 1205.7529296875 1203.15795898438 1202.2666015625 1210.23522949219 1206.5 1214.11999511719 1219.20007324219 1257.30004882813 1295.40002441406
485.774993896484 488.576477050781 488.576477050781 486.833312988281 491.490020751953 501.650024414063 509.015991210938 517.525024414063 526.472717285156 533.400024414063 536.575012207031 542.544006347656 544.688903808594 549.275024414063 554.181823730469 559.904357910156 561.975036621094 563.217407226563 567.690002441406 568.960021972656 571.5 574.430786132813 576.262512207031 579.966674804688 576.94287109375 587.188232421875 599.440002441406 609.600036621094 632.460021972656 632.460021972656 642.257141113281 674.914245605469 697.523071289063 709.612487792969 709.612487792969 692.149963378906 685.799987792969 693.419982910156 699.654541015625 711.200012207031 713.509155273438 713.509155273438 708.660034179688 702.7333984375 695.325012207031 685.799987792969 701.0400390625 719.666687011719 745.066650390625 750.276977539063 739.140014648438 719.666687011719 693.419982910156 685.799987792969 690.033325195313 703.729431152344 717.176452636719 719.328002929688 712.470031738281 685.799987792969 666.75 642.257141113281 653.142883300781 636.27001953125 642.257141113281 649.514282226563 678.274047851563 679.6689453125 685.799987792969 699.654541015625 707.135986328125 725.424011230469 743.712036132813 762 791.307678222656 824.345458984375 843.642883300781 851.80712890625 871.537536621094 890.953857421875 902.676940917969 914.400024414063 927.100036621094 963.3857421875 995.362487792969 1017.494140625 1030.94116210938 1047.75 1061.71997070313 1066.80004882813 1094.50915527344 1123.95007324219 1158.23999023438 1177.2900390625 1203.15795898438 1222.248046875 1228.34399414063 1202.2666015625 1191.98571777344 1197.42858886719 1219.20007324219 1237.12939453125 1248.83337402344 1255.05883789063 1264.92004394531 1286.93334960938 1303.86669921875 1324.42858886719 1346.19995117188 1338.26257324219 1341.11999511719 1305.91040039063 1285.23999023438 1264.92004394531 1246.41430664063 1235.52856445313 1219.20007324219 1211.57995605469 1203.43444824219 1196.33996582031 1202.634765625 1201.05712890625 1199.14733886719 1191.12634277344 1183.82141113281 1193.00622558594 1175.65710449219 1171.57507324219 1178.71875 1185.86254882813 1193.80004882813 1202.2666015625 1212.57397460938 1216.66003417969 1213.94482421875 1216.57250976563 1211.31726074219 1204.45153808594 1213.75720214844 1219.20007324219 1222.66357421875 1219.20007324219 1211.94287109375 1204.68566894531 1203.15795898438 1201.27062988281 1196.78833007813 1197.42858886719 1190.17150878906 1182.75659179688 1176.13037109375 1166.19128417969 1160.31811523438 1163.78186035156 1165.41174316406 1171.57507324219 1174.37646484375 1178.56005859375 1195.75390625 1208.31433105469 1219.20007324219 1246.9091796875 1274.61828613281 1295.40002441406 1330.5693359375 1365.73840332031 1371.59997558594 1371.59997558594 1371.59997558594 1371.59997558594 1371.59997558594 1349.82849121094 1328.05725097656 1314.45007324219 1295.40002441406 1257.30004882813 1270 1295.40002441406 1295.40002441406 1317.17150878906 1328.05725097656 1338.94274902344 1343.02502441406
511.628570556641 514.350036621094 515.470581054688 510.540008544922 512.233337402344 514.350036621094 520.700012207031 524.255981445313 536.447998046875 545.591979980469 552.450012207031 555.625 560.83203125 561.622253417969 568.325012207031 574.963623046875 579.782653808594 583.095642089844 576.469543457031 581.526306152344 599.440002441406 609.600036621094 609.600036621094 604.837524414063 605.366638183594 598.714294433594 622.299987792969 653.142883300781 674.914245605469 678.179992675781 685.799987792969 699.654541015625 723.900024414063 732.692321777344 730.25 727.363586425781 716.280029296875 723.900024414063 739.140014648438 741.218200683594 742.950012207031 741.218200683594 753.533325195313 752.475036621094 736.600036621094 721.360046386719 723.900024414063 746.760009765625 772.159973144531 777.239990234375 767.44287109375 739.140014648438 717.550048828125 706.581848144531 708.660034179688 715.433349609375 730.62353515625 744.070617675781 735.330017089844 713.509155273438 697.523071289063 690.5625 685.799987792969 652.462524414063 659.130004882813 664.028625488281 671.285705566406 683.918518066406 684.924133300781 698.09033203125 712.838745117188 727.587097167969 742.335510253906 757.083862304688 782.781860351563 807.720031738281 830.580017089844 842.962524414063 855.78466796875 867.507690429688 883.919982910156 897.466674804688 930.728637695313 958.849975585938 990.600036621094 1004.04705810547 1019.17498779297 1031.23999023438 1038.22497558594 1059.18005371094 1080.65454101563 1122.21813964844 1154.43005371094 1179.0947265625 1199.14733886719 1212.57397460938 1196.33996582031 1176.86669921875 1175.65710449219 1188.71997070313 1208.31433105469 1223.43334960938 1228.16479492188 1234.44006347656 1261.53332519531 1282.14794921875 1302.6572265625 1330.9599609375 1319.6455078125 1323.97497558594 1325.88000488281 1316.35498046875 1284.51428222656 1254.76000976563 1234.44006347656 1216.81872558594 1211.57995605469 1203.9599609375 1196.33996582031 1187.6689453125 1181.09997558594 1182.75659179688 1179.28576660156 1175.08422851563 1167.06311035156 1181.09997558594 1157.28747558594 1164.43127441406 1171.57507324219 1178.56005859375 1185.33337402344 1192.69567871094 1200.91198730469 1201.42004394531 1198.17932128906 1200.15002441406 1200.80688476563 1197.42858886719 1203.43444824219 1203.9599609375 1200.15002441406 1201.05712890625 1197.42858886719 1190.17150878906 1182.91430664063 1179.0947265625 1174.37646484375 1169.89416503906 1175.65710449219 1168.40002441406 1162.87829589844 1156.25219726563 1146.31311035156 1140.7587890625 1143 1147.48229980469 1148.080078125 1160.58459472656 1175.65710449219 1186.54284667969 1207.47692871094 1233.05456542969 1253.83630371094 1278.46667480469 1306.28576660156 1337.73327636719 1363.13330078125 1371.59997558594 1371.59997558594 1371.59997558594 1371.59997558594 1371.59997558594 1371.59997558594 1346.19995117188 1312.33337402344 1337.73327636719 1343.02502441406 1349.82849121094 1360.71423339844 1371.59997558594 1397.00012207031 1422.40002441406 1417.32006835938
536.863647460938 539.75 540.026123046875 536.863647460938 533.400024414063 536.713012695313 536.863647460938 540.026123046875 546.099975585938 554.736022949219 563.880004882813 571.5 574.674987792969 579.119995117188 578.555603027344 587.375 595.745422363281 599.660888671875 596.347839355469 605.589477539063 622.299987792969 643.466674804688 660.400024414063 664.028625488281 670.559997558594 655.320007324219 666.75 695.325012207031 711.200012207031 720.436401367188 723.900024414063 723.900024414063 741.218200683594 769.619995117188 769.619995117188 756.919982910156 746.760009765625 752.475036621094 762 790.575012207031 783.771423339844 795.866638183594 800.100036621094 787.399963378906 747.712524414063 736.600036621094 751.840026855469 772.8857421875 807.720031738281 800.100036621094 779.584655761719 755.650024414063 740.228637695313 727.363586425781 736.600036621094 731.52001953125 740.833374023438 757.517700195313 755.07275390625 732.692321777344 719.137512207031 708.660034179688 700.314331054688 694.266662597656 681.037536621094 681.989990234375 685.799987792969 698.500061035156 711.200012207031 717.550048828125 705.970581054688 708.837158203125 742.18798828125 751.33203125 762 784.859985351563 803.563598632813 819.150024414063 832.338500976563 853.440002441406 872.066650390625 900.952941894531 920.75 939.799987792969 962.025024414063 990.600036621094 1000.76000976563 1009.65002441406 1036.32006835938 1057.27502441406 1084.38464355469 1123.95007324219 1155.03161621094 1175.08422851563 1192.69567871094 1194.61938476563 1171.57507324219 1150.61999511719 1158.23999023438 1175.65710449219 1193.80004882813 1202.2666015625 1212.57397460938 1238.25 1259.54125976563 1286.43530273438 1315.71997070313 1319.89282226563 1309.25451660156 1309.6875 1310.64001464844 1304.92504882813 1279.07153320313 1251.85717773438 1224.28002929688 1211.03576660156 1202.53125 1196.33996582031 1188.71997070313 1181.09997558594 1171.90344238281 1165.85998535156 1162.87829589844 1157.51428222656 1151.02099609375 1143 1165.85998535156 1157.28747558594 1163.32006835938 1168.40002441406 1172.8173828125 1182.6240234375 1188.07995605469 1186.18005371094 1182.41381835938 1190.625 1181.09997558594 1185.04138183594 1179.78625488281 1188.71997070313 1186.96154785156 1181.09997558594 1179.28576660156 1175.65710449219 1168.40002441406 1161.14294433594 1155.03161621094 1147.48229980469 1143 1153.8857421875 1146.62854003906 1143 1127.31176757813 1129.93713378906 1132.70275878906 1134.97900390625 1136.98425292969 1143 1153.8857421875 1172.30773925781 1191.49084472656 1213.33850097656 1227.66674804688 1247.77502441406 1286.93334960938 1312.33337402344 1333.5 1356.35998535156 1371.59997558594 1371.59997558594 1371.59997558594 1371.59997558594 1362.07507324219 1371.59997558594 1324.810546875 1366.52001953125 1384.85217285156 1404.73046875 1424.60876464844 1435.10009765625 1447.80004882813 1447.80004882813 1447.80004882813
552.450012207031 557.645446777344 559.904357910156 557.645446777344 555.171447753906 555.171447753906 556.59130859375 556.59130859375 559.904357910156 565.150024414063 573.023986816406 582.168029785156 590.549987792969 593.724975585938 597.408020019531 595.488891601563 606.425048828125 635 635 655.320007324219 673.099975585938 692.149963378906 693.419982910156 706.581848144531 713.509155273438 716.280029296875 723.900024414063 733.424987792969 752.475036621094 762 762 745.67138671875 762 794.657165527344 804.333374023438 800.100036621094 800.100036621094 807.720031738281 822.960021972656 838.200012207031 845.127319335938 844.0615234375 838.200012207031 809.625 770.466674804688 762 787.399963378906 838.200012207031 832.757141113281 814.753845214844 793.750061035156 773.723022460938 762 748.145446777344 758.371459960938 762 754.380004882813 780.142883300781 766.010559082031 747.712524414063 731.52001953125 722.085693359375 712.470031738281 719.666687011719 711.200012207031 711.200012207031 717.550048828125 727.363586425781 736.600036621094 749.299987792969 755.650024414063 719.417663574219 719.469787597656 762 762 762 781.049987792969 797.169189453125 820.615356445313 846.666687011719 874.058837890625 894.347351074219 904.009155273438 911.224975585938 925.285766601563 952.5 977.899963378906 1004.04705810547 1030.94116210938 1057.83532714844 1085.84997558594 1125.41540527344 1151.02099609375 1172.8173828125 1168.97729492188 1179.87097167969 1143 1140.15148925781 1143 1163.32006835938 1176.86669921875 1192.69567871094 1215.88696289063 1242.06005859375 1276.34997558594 1300.47998046875 1311.728515625 1319.52990722656 1298.86364746094 1295.40002441406 1295.40002441406 1295.40002441406 1273.62854003906 1246.41430664063 1219.20007324219 1202.634765625 1194.70715332031 1188.24377441406 1181.09997558594 1173.47998046875 1165.85998535156 1156.13793945313 1153.16003417969 1143 1135.38000488281 1127.76000976563 1143 1148.080078125 1151.46667480469 1152.93908691406 1164.33605957031 1172.16931152344 1175.76599121094 1170.94006347656 1166.64831542969 1164.77136230469 1171.90344238281 1178.71875 1169.27587890625 1164.02075195313 1169.376953125 1164.33605957031 1162.05004882813 1157.51428222656 1153.8857421875 1146.62854003906 1140.5419921875 1130.70971679688 1127.23449707031 1135.11730957031 1133.763671875 1113.86474609375 1116.87426757813 1120.34594726563 1122.94738769531 1124.95263671875 1130.30004882813 1132.84008789063 1140.177734375 1149.92724609375 1178.16918945313 1191.98571777344 1203.9599609375 1236.13342285156 1270 1289.04992675781 1310.64001464844 1333.5 1354.01538085938 1360.71423339844 1352.55004882813 1346.19995117188 1338.94274902344 1363.265625 1336.0400390625 1346.19995117188 1359.876953125 1371.59997558594 1388.53332519531 1428.75 1447.80004882813 1447.80004882813 1447.80004882813
567.266662597656 575.309997558594 578.427307128906 578.427307128906 576.94287109375 576.469543457031 576.94287109375 576.469543457031 576.469543457031 579.782653808594 584.200012207031 591.31201171875 600.455993652344 609.600036621094 628.650024414063 628.650024414063 647.700012207031 685.799987792969 695.325012207031 696.685729980469 707.571411132813 717.550048828125 730.25 739.140014648438 748.145446777344 755.07275390625 762 787.399963378906 800.100036621094 816.428588867188 822.960021972656 807.720031738281 819.150024414063 844.549987792969 849.923034667969 854.528625488281 854.528625488281 855.78466796875 865.909118652344 876.299987792969 889.000061035156 889.000061035156 863.599975585938 838.200012207031 819.150024414063 825.5 849.085754394531 863.599975585938 849.085754394531 831.850036621094 808.892333984375 800.100036621094 784.859985351563 779.584655761719 785.8125 788.894165039063 775.447082519531 790.073669433594 776.287536621094 754.380004882813 743.857116699219 735.330017089844 732.36669921875 749.299987792969 737.936889648438 737.616027832031 741.679992675781 755.650024414063 772.8857421875 787.399963378906 792.47998046875 770.466674804688 732.86474609375 730.102355957031 762 762 762 785.446166992188 812.800048828125 847.164733886719 870.284240722656 883.227294921875 892.174987792969 904.875 933.450012207031 963.705871582031 990.600036621094 1012.37139892578 1034.14282226563 1055.91430664063 1082.0400390625 1125.41540527344 1152.93908691406 1158.58642578125 1165.513671875 1165.12255859375 1138.71911621094 1135.87854003906 1139.82495117188 1151.46667480469 1177.2900390625 1200.15002441406 1225.55004882813 1253.83630371094 1287.78002929688 1303.56433105469 1311.90991210938 1317.17150878906 1288.47277832031 1278.83483886719 1273.62854003906 1284.51428222656 1264.92004394531 1240.97143554688 1215.189453125 1196.33996582031 1182.75659179688 1178.37866210938 1173.95629882813 1165.85998535156 1158.23999023438 1150.61999511719 1138.98950195313 1130.30004882813 1120.14001464844 1112.52001953125 1127.76000976563 1132.70275878906 1132.1142578125 1146.04797363281 1156.2587890625 1162.65966796875 1163.95495605469 1154.12524414063 1148.44287109375 1156.13793945313 1164.43127441406 1162.05004882813 1157.28747558594 1153.51037597656 1151.79235839844 1146.04797363281 1143 1143 1135.74279785156 1130.30004882813 1128.88891601563 1115.96130371094 1111.46899414063 1119.35180664063 1115.05993652344 1103.81140136719 1107.9892578125 1110.91577148438 1112.92102050781 1117.60009765625 1117.60009765625 1123.24450683594 1129.39282226563 1143 1159.32861328125 1173.47998046875 1195.75390625 1231.90002441406 1250.94995117188 1267.69091796875 1295.40002441406 1318.84606933594 1328.73754882813 1328.05725097656 1320.80004882813 1314.45007324219 1308.09997558594 1306.28576660156 1308.09997558594 1324.70764160156 1336.43078613281 1351.28002929688 1371.59997558594 1402.080078125 1417.32006835938 1440.18005371094 1447.80004882813
587.188232421875 592.666687011719 598.169982910156 599.209106445313 598.714294433594 592.015380859375 596.347839355469 598.714294433594 596.347839355469 596.347839355469 599.660888671875 603.25 609.600036621094 666.75 695.9599609375 701.0400390625 707.571411132813 717.550048828125 723.900024414063 731.52001953125 729.342895507813 740.228637695313 755.650024414063 772.8857421875 790.575012207031 800.100036621094 816.428588867188 838.200012207031 850.900024414063 858.981872558594 868.679992675781 872.066650390625 876.299987792969 869.950012207031 882.649963378906 885.092346191406 883.919982910156 887.185729980469 890.953857421875 907.472717285156 929.640014648438 914.400024414063 883.919982910156 865.909118652344 882.649963378906 880.533325195313 867.507690429688 881.742858886719 867.507690429688 847.725036621094 838.200012207031 830.580017089844 814.753845214844 797.858825683594 817.880004882813 815.788269042969 802.341186523438 804.862487792969 785.446166992188 767.861511230469 758.190002441406 757.766662597656 774.700012207031 762 742.121765136719 729.342895507813 755.903991699219 792.47998046875 825.5 838.200012207031 821.266662597656 795.866638183594 767.080017089844 746.311767578125 740.734924316406 762 762 774.700012207031 807.720031738281 846.221008300781 862.445434570313 882.649963378906 885.825012207031 922.86669921875 941.6142578125 971.549987792969 998.621032714844 1019.17498779297 1045.02856445313 1071.88000488281 1102.35998535156 1127.76000976563 1148.19543457031 1155.12268066406 1161.01086425781 1150.37426757813 1133.58203125 1130.30004882813 1136.3740234375 1151.96472167969 1176.86669921875 1202.2666015625 1231.90002441406 1263.65002441406 1295.40002441406 1304.28991699219 1314.7041015625 1310.64001464844 1281.95300292969 1267.69091796875 1258.95642089844 1251.85717773438 1251.85717773438 1234.44006347656 1211.57995605469 1191.12634277344 1173.47998046875 1162.87829589844 1162.05004882813 1159.66882324219 1150.61999511719 1143 1129.55297851563 1114.92639160156 1104.90002441406 1097.28002929688 1112.52001953125 1110.34289550781 1122.94738769531 1138.98950195313 1149.55322265625 1154.06811523438 1152.52502441406 1143 1140.73095703125 1150.14379882813 1153.30224609375 1149.87377929688 1147.76257324219 1143 1138.51770019531 1133.47497558594 1129.39282226563 1123.95007324219 1122.21813964844 1113.97143554688 1104.90002441406 1111.95556640625 1095.70349121094 1103.58618164063 1102.51879882813 1099.81994628906 1112.92102050781 1100.88952636719 1104.90002441406 1102.35998535156 1106.31115722656 1113.06433105469 1125.41540527344 1133.85595703125 1143 1160.58459472656 1188.71997070313 1212.27270507813 1226.12731933594 1244.59997558594 1278.46667480469 1300.16247558594 1299.63330078125 1295.40002441406 1290.91760253906 1285.46081542969 1282.14794921875 1281.54541015625 1291.771484375 1301.26159667969 1320.80004882813 1338.94274902344 1359.876953125 1371.59997558594 1394.4599609375 1422.40002441406 1426.63342285156
605.366638183594 620.485717773438 635 635 619.125 603.95556640625 609.600036621094 626.533386230469 626.533386230469 619.125 628.650024414063 638.174987792969 660.400024414063 693.419982910156 720.436401367188 731.52001953125 726.141235351563 740.228637695313 755.650024414063 762 752.475036621094 762 792.47998046875 816.428588867188 838.200012207031 846.666687011719 855.133361816406 868.679992675781 876.299987792969 889.000061035156 900.545471191406 914.400024414063 929.640014648438 896.815368652344 908.050048828125 939.799987792969 914.400024414063 914.400024414063 952.5 952.5 971.549987792969 939.799987792969 907.472717285156 896.815368652344 892.628601074219 926.123046875 914.400024414063 902.676940917969 904.875 889.000061035156 876.299987792969 855.133361816406 838.200012207031 824.7529296875 842.210571289063 838.200012207031 833.4375 820.615356445313 803.030822753906 791.307678222656 800.100036621094 812.800048828125 812.800048828125 790.575012207031 762 745.67138671875 751.489685058594 822.960021972656 853.440002441406 850.490295410156 855.78466796875 819.150024414063 790.575012207031 770.466674804688 759.7587890625 751.367431640625 762 762 804.333374023438 841.663635253906 860.425048828125 866.775024414063 900.112487792969 919.162536621094 934.720031738281 969.818176269531 1003.30004882813 1028.70007324219 1047.75 1078.83154296875 1100.13757324219 1126.67138671875 1144.73181152344 1156.25219726563 1152.69812011719 1137.92004394531 1120.77502441406 1126.43481445313 1137.28503417969 1157.28747558594 1178.85876464844 1200.15002441406 1226.12731933594 1263.65002441406 1296.669921875 1295.40002441406 1308.60803222656 1304.10852050781 1277.8154296875 1255.05883789063 1246.9091796875 1239.07824707031 1230.08569335938 1219.20007324219 1208.31433105469 1188.71997070313 1167.06311035156 1150.61999511719 1143 1145.72143554688 1145.38122558594 1129.55297851563 1114.42504882813 1102.65881347656 1090.86315917969 1082.0400390625 1088.57141113281 1098.88427734375 1114.92639160156 1131.57006835938 1144.58117675781 1145.77087402344 1143 1127.11657714844 1132.60913085938 1147.01062011719 1144.81433105469 1140.177734375 1134.03527832031 1130.64331054688 1130.30004882813 1125.07055664063 1119.1875 1113.06433105469 1104.90002441406 1101.43640136719 1092.19995117188 1079.5 1095.02221679688 1087.82067871094 1092.99377441406 1088.23132324219 1084.57995605469 1092.19995117188 1087.11999511719 1089.37780761719 1096.73571777344 1107.83081054688 1115.56799316406 1123.95007324219 1132.60913085938 1143 1170.70910644531 1189.89233398438 1202.87145996094 1227.66674804688 1263.65002441406 1275.080078125 1278.46667480469 1275.34741210938 1271.3369140625 1264.0234375 1262.26953125 1270 1274.2333984375 1289.53845214844 1306.28576660156 1324.70764160156 1341.11999511719 1356.35998535156 1384.29992675781 1401.23327636719 1409.70007324219
653.142883300781 673.099975585938 685.799987792969 676.275024414063 664.028625488281 647.700012207031 660.400024414063 674.914245605469 676.275024414063 670.559997558594 670.559997558594 685.799987792969 694.266662597656 716.280029296875 739.140014648438 762 756.919982910156 753.035278320313 787.399963378906 816.428588867188 838.200012207031 845.820007324219 853.440002441406 863.599975585938 872.066650390625 889.000061035156 897.466674804688 905.933349609375 914.400024414063 914.400024414063 990.600036621094 999.066711425781 1007.53338623047 1016 1001.48571777344 1009.65002441406 1028.70007324219 1034.14282226563 1041.40002441406 1034.14282226563 1021.08001708984 990.600036621094 960.119995117188 952.5 936.17138671875 942.109130859375 944.880004882813 939.799987792969 937.260009765625 921.327270507813 905.933349609375 889.000061035156 865.909118652344 866.273681640625 852.487487792969 857.25 856.12939453125 838.200012207031 826.476989746094 820.615356445313 842.433349609375 854.242126464844 848.359985351563 819.150024414063 784.859985351563 762 772.8857421875 838.200012207031 863.599975585938 883.919982910156 890.953857421875 853.440002441406 821.266662597656 804.333374023438 787.399963378906 777.239990234375 762 762 790.575012207031 828.674987792969 847.725036621094 871.537536621094 891.98828125 905.933349609375 928.254577636719 962.025024414063 998.621032714844 1019.17498779297 1050.47143554688 1071.5625 1094.01428222656 1115.78576660156 1137.92004394531 1149.62609863281 1144.38549804688 1122.67993164063 1116.49560546875 1125.85498046875 1137.74487304688 1163.32006835938 1185.86254882813 1205.7529296875 1226.82006835938 1267.69091796875 1295.40002441406 1295.40002441406 1302.51208496094 1297.57727050781 1274.61828613281 1242.64611816406 1228.16479492188 1226.12731933594 1219.20007324219 1207.16845703125 1197.42858886719 1186.54284667969 1165.85998535156 1143 1132.1142578125 1125.41540527344 1124.85717773438 1120.58825683594 1102.65881347656 1085.84997558594 1075.76477050781 1066.80004882813 1074.82104492188 1090.86315917969 1108.7099609375 1123.95007324219 1132.60913085938 1126.54077148438 1117.22265625 1111.82727050781 1124.4072265625 1126.74401855469 1132.1142578125 1128.88891601563 1123.24450683594 1118.28649902344 1112.92102050781 1117.60009765625 1111.62353515625 1104.90002441406 1096.73571777344 1085.84997558594 1080.65454101563 1070.42858886719 1065.3623046875 1078.0888671875 1081.54846191406 1078.70629882813 1073.94372558594 1071.88000488281 1072.44445800781 1080.40710449219 1090.24621582031 1097.28002929688 1104.90002441406 1111.82727050781 1121.22863769531 1135.74279785156 1154.72302246094 1170.21423339844 1191.98571777344 1225.55004882813 1244.59997558594 1249.68005371094 1254.12512207031 1253.06677246094 1251.2841796875 1247.27368164063 1237.12939453125 1248.83337402344 1254.36926269531 1273.62854003906 1289.95727539063 1310.64001464844 1325.88000488281 1348.15393066406 1375.83325195313 1390.65002441406 1403.83837890625
706.581848144531 719.666687011719 733.424987792969 736.600036621094 718.457153320313 704.850036621094 714.375 723.900024414063 728.133361816406 719.666687011719 716.280029296875 716.280029296875 736.600036621094 745.066650390625 762 807.720031738281 812.800048828125 822.960021972656 838.200012207031 853.440002441406 865.909118652344 879.763610839844 891.5400390625 899.160034179688 914.400024414063 925.285766601563 947.05712890625 957.94287109375 977.899963378906 1005.84002685547 1021.08001708984 1036.32006835938 1049.86669921875 1057.27502441406 1066.80004882813 1057.27502441406 1066.80004882813 1066.80004882813 1066.80004882813 1066.80004882813 1066.80004882813 1034.14282226563 1019.17498779297 1001.48571777344 1001.48571777344 990.600036621094 983.672729492188 982.980041503906 962.890869140625 949.036437988281 933.450012207031 907.472717285156 886.326354980469 886.326354980469 882.315795898438 881.0625 868.679992675781 865.909118652344 861.059997558594 855.78466796875 863.599975585938 867.833312988281 859.971435546875 830.580017089844 803.563598632813 788.894165039063 803.563598632813 838.200012207031 865.094116210938 894.079956054688 914.400024414063 889.000061035156 857.25 838.200012207031 822.960021972656 803.563598632813 787.399963378906 768.349975585938 771.525024414063 806.450012207031 842.962524414063 865.094116210938 880.533325195313 898.35791015625 914.400024414063 952.5 990.600036621094 1017.81427001953 1044.38830566406 1062.31762695313 1083.12866210938 1107.43994140625 1129.55297851563 1143 1127.125 1107.43994140625 1114.42504882813 1121.97924804688 1137.92004394531 1162.05004882813 1193.80004882813 1214.4375 1246.41430664063 1272.5400390625 1295.40002441406 1295.40002441406 1296.416015625 1276.34997558594 1260.763671875 1233.05456542969 1212.27270507813 1203.9599609375 1201.27062988281 1192.30590820313 1183.10522460938 1175.65710449219 1164.77136230469 1143 1126.06665039063 1115.78576660156 1107.83081054688 1103.08569335938 1093.69409179688 1075.76477050781 1061.22436523438 1056.64001464844 1066.80004882813 1085.84997558594 1101.08996582031 1111.82727050781 1115.96130371094 1114.77783203125 1093.62243652344 1096.51806640625 1102.35998535156 1103.58618164063 1105.92980957031 1115.78576660156 1111.95556640625 1106.31115722656 1100.88952636719 1095.63244628906 1104.90002441406 1098.17651367188 1090.61254882813 1080.40710449219 1066.80004882813 1061.35717773438 1056.73583984375 1059.71166992188 1064.49096679688 1066.80004882813 1064.17248535156 1058.86254882813 1063.81176757813 1072.66149902344 1078.99206542969 1085.84997558594 1091.04541015625 1099.45715332031 1113.97143554688 1129.1455078125 1139.68701171875 1159.32861328125 1189.89233398438 1213.33850097656 1226.82006835938 1235.07495117188 1245.57702636719 1235.76525878906 1227.66674804688 1227.22106933594 1223.43334960938 1219.20007324219 1240.97143554688 1257.30004882813 1279.07153320313 1295.40002441406 1312.98461914063 1336.96374511719 1371.59997558594 1387.36547851563 1386.25390625
736.600036621094 748.145446777344 768.927307128906 781.049987792969 755.07275390625 746.760009765625 762 769.619995117188 770.466674804688 751.1142578125 744.415344238281 762 762 787.399963378906 800.100036621094 827.314270019531 853.440002441406 861.646179199219 869.950012207031 883.919982910156 899.160034179688 907.472717285156 922.02001953125 939.799987792969 952.5 971.549987792969 990.600036621094 999.066711425781 1013.46002197266 1028.70007324219 1051.56005859375 1066.80004882813 1066.80004882813 1066.80004882813 1066.80004882813 1066.80004882813 1066.80004882813 1066.80004882813 1066.80004882813 1066.80004882813 1066.80004882813 1066.80004882813 1066.80004882813 1066.80004882813 1047.75 1045.02856445313 1045.02856445313 1021.08001708984 990.600036621094 971.549987792969 949.036437988281 914.400024414063 910.389465332031 895.350036621094 892.628601074219 899.160034179688 907.472717285156 906.780029296875 883.919982910156 889.000061035156 890.953857421875 901.700012207031 901.700012207031 850.900024414063 821.634765625 815.788269042969 828.0400390625 842.682312011719 863.599975585938 889.000061035156 914.400024414063 914.400024414063 889.000061035156 868.679992675781 847.725036621094 825.5 806.450012207031 787.399963378906 775.252197265625 793.37646484375 838.200012207031 863.599975585938 889.000061035156 914.400024414063 934.720031738281 949.569213867188 984.250061035156 1017.494140625 1035.42358398438 1053.35290527344 1076.9599609375 1102.65881347656 1117.60009765625 1123.12182617188 1113.6923828125 1092.19995117188 1106.21374511719 1107.43994140625 1143 1169.89416503906 1190.625 1223.68237304688 1247.77502441406 1280.16003417969 1295.40002441406 1295.40002441406 1282.70007324219 1257.30004882813 1238.25 1219.20007324219 1204.68566894531 1191.49084472656 1181.09997558594 1174.37646484375 1165.41174316406 1159.04211425781 1153.8857421875 1143 1123.12182617188 1109.13330078125 1099.45715332031 1090.24621582031 1081.31433105469 1066.80004882813 1058.56213378906 1046.47998046875 1060.9384765625 1078.22998046875 1091.04541015625 1091.84118652344 1101.212890625 1097.84448242188 1080.05224609375 1077.97607421875 1087.82067871094 1093.57299804688 1092.06030273438 1093.57299804688 1099.45715332031 1095.02221679688 1089.37780761719 1083.27563476563 1098.88427734375 1092.19995117188 1084.72937011719 1076.32507324219 1063.86926269531 1050.47143554688 1045.02856445313 1049.0791015625 1050.63635253906 1049.86669921875 1048.40698242188 1049.33752441406 1054.84704589844 1060.17395019531 1066.80004882813 1070.263671875 1077.68579101563 1092.19995117188 1108.36364746094 1119.80871582031 1132.1142578125 1154.72302246094 1178.16918945313 1197.42858886719 1214.11999511719 1232.80712890625 1227.99230957031 1215.88696289063 1205.94787597656 1206.5 1204.45153808594 1211.94287109375 1224.64282226563 1246.41430664063 1262.74279785156 1277.8154296875 1295.40002441406 1333.5 1371.59997558594 1378.97412109375 1368.13635253906
775.854553222656 781.049987792969 800.100036621094 800.100036621094 794.657165527344 800.100036621094 812.800048828125 821.266662597656 800.100036621094 774.700012207031 778.933349609375 792.47998046875 805.542907714844 827.314270019531 838.200012207031 847.164733886719 863.599975585938 883.919982910156 896.815368652344 908.050048828125 927.537963867188 943.303466796875 949.036437988281 967.739990234375 990.600036621094 1002.89031982422 1017.63873291016 1032.38708496094 1024.46667480469 1059.18005371094 1066.80004882813 1066.80004882813 1066.80004882813 1066.80004882813 1066.80004882813 1066.80004882813 1066.80004882813 1066.80004882813 1066.80004882813 1066.80004882813 1066.80004882813 1066.80004882813 1066.80004882813 1066.80004882813 1066.80004882813 1066.80004882813 1066.80004882813 1066.80004882813 1036.32006835938 990.600036621094 971.549987792969 956.733337402344 939.799987792969 914.400024414063 931.984680175781 936.811767578125 935.566650390625 919.842895507813 914.400024414063 919.162536621094 919.162536621094 930.442138671875 919.480041503906 868.679992675781 847.725036621094 844.0615234375 849.923034667969 865.414245605469 869.576477050781 889.000061035156 914.400024414063 930.563659667969 914.400024414063 904.875 881.742858886719 847.725036621094 817.880004882813 800.100036621094 795.130432128906 818.32177734375 820.270629882813 850.900024414063 876.299987792969 901.700012207031 925.285766601563 946.150024414063 990.600036621094 1008.52941894531 1026.45886230469 1047.75 1075.76477050781 1092.19995117188 1096.81823730469 1103.24353027344 1089.02502441406 1078.52307128906 1076.9599609375 1116.10583496094 1147.2333984375 1169.89416503906 1192.30590820313 1219.20007324219 1249.68005371094 1274.2333984375 1288.14282226563 1285.23999023438 1268.18579101563 1244.59997558594 1214.4375 1203.9599609375 1193.80004882813 1182.91430664063 1170.70910644531 1158.23999023438 1147.48229980469 1139.19006347656 1134.53332519531 1127.76000976563 1112.52001953125 1103.24353027344 1092.19995117188 1083.12866210938 1072.66149902344 1054.89379882813 1053.73718261719 1046.20544433594 1049.21533203125 1070.263671875 1078.18237304688 1079.75402832031 1086.46447753906 1080.9111328125 1064.20922851563 1072.05517578125 1081.21630859375 1086.67822265625 1083.36083984375 1079.43017578125 1080.2470703125 1083.12866210938 1078.0888671875 1072.44445800781 1092.81958007813 1086.85266113281 1079.5 1071.28234863281 1060.45007324219 1046.28466796875 1034.14282226563 1028.70007324219 1036.78186035156 1032.93334960938 1032.64147949219 1039.8125 1040.29565429688 1046.92175292969 1052.14611816406 1058.91723632813 1070.42858886719 1087.58190917969 1099.93041992188 1110.34289550781 1127.76000976563 1143 1164.77136230469 1183.64001464844 1200.15002441406 1219.20007324219 1209.0400390625 1196.00866699219 1186.06958007813 1187.44995117188 1190.17150878906 1198.03332519531 1214.71765136719 1230.08569335938 1242.64611816406 1257.30004882813 1295.40002441406 1330.03637695313 1354.01538085938 1358.15295410156 1347.35461425781
819.150024414063 824.345458984375 838.200012207031 838.200012207031 838.200012207031 838.200012207031 838.200012207031 838.200012207031 838.200012207031 829.733337402344 830.580017089844 829.733337402344 838.200012207031 852.616271972656 864.973022460938 852.487487792969 874.058837890625 894.079956054688 914.400024414063 930.16552734375 945.931030273438 961.696533203125 977.462036132813 990.600036621094 1004.63690185547 1016.66845703125 1028.70007324219 1040.73156738281 1052.76318359375 1049.86669921875 1066.80004882813 1066.80004882813 1066.80004882813 1066.80004882813 1066.80004882813 1066.80004882813 1066.80004882813 1066.80004882813 1066.80004882813 1066.80004882813 1066.80004882813 1066.80004882813 1066.80004882813 1066.80004882813 1066.80004882813 1066.80004882813 1066.80004882813 1066.80004882813 1066.80004882813 1028.70007324219 1005.84002685547 990.600036621094 971.549987792969 958.849975585938 952.5 959.223571777344 952.5 944.880004882813 941.294128417969 947.737487792969 947.737487792969 949.960021972656 931.984680175781 904.875 879.230834960938 886.69091796875 876.299987792969 885.092346191406 898.071411132813 896.470642089844 914.400024414063 933.450012207031 930.274963378906 924.790893554688 904.875 857.25 822.960021972656 816.428588867188 815.008728027344 835.572448730469 838.200012207031 850.392028808594 868.679992675781 886.968017578125 905.255981445313 925.285766601563 968.82861328125 999.564758300781 1019.17498779297 1043.35388183594 1066.80004882813 1073.15002441406 1082.96362304688 1083.365234375 1069.97509765625 1060.62158203125 1083.7333984375 1123.95007324219 1150.61999511719 1172.63330078125 1196.78833007813 1219.20007324219 1248.83337402344 1266.37133789063 1274.61828613281 1267.177734375 1254.76000976563 1235.52856445313 1207.47692871094 1185.86254882813 1173.47998046875 1168.40002441406 1161.14294433594 1149.92724609375 1135.38000488281 1125.68188476563 1116.32995605469 1109.13330078125 1097.28002929688 1082.0400390625 1083.365234375 1075.26672363281 1066.80004882813 1056.28967285156 1048.32727050781 1040.67431640625 1033.8486328125 1063.17138671875 1068.65063476563 1072.11633300781 1071.71618652344 1064.34191894531 1056.00146484375 1068.85949707031 1076.73913574219 1101.01220703125 1098.80395507813 1086.29309082031 1066.80004882813 1068.85949707031 1063.97778320313 1057.83532714844 1083.7333984375 1081.66833496094 1074.82104492188 1066.80004882813 1054.09997558594 1041.40002441406 1028.70007324219 1017.81427001953 1012.37139892578 1016 1016.87585449219 1020.41741943359 1027.04345703125 1034.5615234375 1043.15173339844 1054.09997558594 1066.80004882813 1080.05224609375 1088.57141113281 1104.90002441406 1121.22863769531 1136.07275390625 1153.16003417969 1171.57507324219 1188.71997070313 1193.80004882813 1188.02734375 1178.56005859375 1166.19128417969 1168.40002441406 1172.63330078125 1187.82360839844 1203.15795898438 1212.27270507813 1219.20007324219 1253.83630371094 1289.53845214844 1318.84606933594 1333.5 1335.7412109375 1331.2587890625
849.782409667969 853.440002441406 857.097595214844 860.755187988281 864.412780761719 868.070434570313 871.72802734375 875.385620117188 879.043212890625 882.700805664063 886.3583984375 890.015991210938 893.673583984375 897.331237792969 900.988830566406 904.646423339844 866.775024414063 900.952941894531 919.018249511719 932.872680664063 946.727294921875 960.581848144531 976.085693359375 987.286926269531 999.892700195313 1011.0439453125 1022.19512939453 1033.34631347656 1038.72631835938 1053.35290527344 1066.80004882813 1066.80004882813 1066.80004882813 1066.80004882813 1066.80004882813 1066.80004882813 1066.80004882813 1066.80004882813 1062.56665039063 1066.80004882813 1066.80004882813 1066.80004882813 1066.80004882813 1066.80004882813 1066.80004882813 1066.80004882813 1066.80004882813 1066.80004882813 1066.80004882813 1051.56005859375 1041.40002441406 1024.46667480469 1007.53338623047 990.600036621094 985.519958496094 985.157165527344 975.359985351563 972.670593261719 968.188293457031 976.3125 980.440063476563 967.153869628906 946.150024414063 914.400024414063 877.824035644531 896.470642089844 925.285766601563 908.957153320313 919.842895507813 924.559997558594 935.566650390625 949.325012207031 945.57275390625 935.566650390625 914.400024414063 866.775024414063 838.200012207031 832.757141113281 834.886962890625 854.528625488281 862.012512207031 850.556762695313 856.12939453125 890.814331054688 897.731262207031 912.394775390625 956.733337402344 984.250061035156 1008.18463134766 1028.70007324219 1052.94543457031 1066.80004882813 1069.10913085938 1059.87268066406 1048.26489257813 1066.80004882813 1101.96923828125 1134.53332519531 1157.51428222656 1173.47998046875 1198.03332519531 1223.43334960938 1244.59997558594 1233.57739257813 1260.763671875 1250.24450683594 1240.63122558594 1224.28002929688 1201.61535644531 1172.30773925781 1157.28747558594 1143 1143 1138.98950195313 1126.06665039063 1112.52001953125 1104.90002441406 1093.46997070313 1083.7333984375 1066.80004882813 1055.36999511719 1061.71997070313 1053.35290527344 1046.92175292969 1040.52416992188 1034.47277832031 1041.40002441406 1046.74731445313 1054.76843261719 1054.76843261719 1051.56005859375 1053.73718261719 1038.35205078125 1066.80004882813 1073.98876953125 1091.681640625 1089.66003417969 1075.66052246094 1061.8837890625 1049.48181152344 1047.04443359375 1044.38830566406 1075.26672363281 1075.11279296875 1070.51708984375 1059.87268066406 1046.92175292969 1035.05004882813 1022.35003662109 1011.11535644531 1001.48571777344 999.066711425781 1000.53912353516 1007.16522216797 1016.97698974609 1027.38623046875 1038.85998535156 1050.47143554688 1061.15551757813 1066.80004882813 1082.0400390625 1099.45715332031 1115.29089355469 1130.30004882813 1143 1158.23999023438 1158.875 1172.02856445313 1167.24548339844 1156.25219726563 1148.080078125 1147.2333984375 1160.92944335938 1179.0947265625 1191.49084472656 1202.2666015625 1216.47863769531 1242.64611816406 1277.8154296875 1304.54406738281 1310.64001464844 1308.84704589844 1305.79089355469
